ply
format ascii 1.0
element vertex 686
property float x
property float y
property float z
property uchar red
property uchar green
property uchar blue
end_header
-0.1608698715766271 -0.04739915858954191 0.5515538454055786 20 25 19
-0.18056054413318634 -0.05517127737402916 0.6419930458068848 26 23 16
-0.17390010754267374 -0.055179841816425323 0.6420927047729492 26 23 16
-0.16721164186795553 -0.055179841816425323 0.6420927047729492 26 23 16
-0.1605231761932373 -0.055179841816425323 0.6420927047729492 26 23 16
-0.15383471051851907 -0.055179841816425323 0.6420927047729492 26 23 16
-0.14714624484380087 -0.055179841816425323 0.6420927047729492 26 23 16
-0.14045777916908264 -0.055179841816425323 0.6420927047729492 26 23 16
-0.1337693134943644 -0.055179841816425323 0.6420927047729492 26 23 16
-0.1270808478196462 -0.055179841816425323 0.6420927047729492 26 23 16
-0.12039238214492798 -0.055179841816425323 0.6420927047729492 26 23 16
-0.11370391647020976 -0.055179841816425323 0.6420927047729492 26 23 16
-0.10701545079549153 -0.055179841816425323 0.6420927047729492 26 23 16
-0.10032698512077332 -0.055179841816425323 0.6420927047729492 26 23 16
-0.0936385194460551 -0.055179841816425323 0.6420927047729492 26 23 16
-0.08695005377133687 -0.055179841816425323 0.6420927047729492 26 23 16
-0.08026158809661865 -0.055179841816425323 0.6420927047729492 26 23 16
-0.07357312242190044 -0.055179841816425323 0.6420927047729492 26 23 16
-0.0668846567471822 -0.055179841816425323 0.6420927047729492 24 24 16
-0.05997311510145664 -0.05497535550966859 0.6397132277488708 27 22 16
-0.040366324285666146 -0.041627771919593215 0.4843958914279938 3 44 0
-0.02999933281292518 -0.03535635652951896 0.41141942143440247 92 177 92
-0.039571378380060196 -0.05441064527258277 0.6331420540809631 26 23 16
-0.03334994427859783 -0.05502740805968642 0.6403189301490784 26 23 16
-0.021697049339612324 -0.04475016426295042 0.5207291841506958 51 23 1
-0.014480958692729473 -0.03982263640500605 0.46339067816734314 194 122 100
-0.012219457576672236 -0.050405262503772974 0.5865339636802673 34 18 21
-0.0065249477823575335 -0.053830819204449654 0.6263949871063232 26 23 18
0.0 -0.05522744311019778 0.6426466107368469 26 23 16
0.006688881665468216 -0.05518327374011278 0.6421326398849487 26 23 16
0.013401747991641363 -0.05528221046552062 0.6432839035987854 26 21 18
0.019751878455281258 -0.05431766575202346 0.6320601105690002 26 18 15
0.025188292066256206 -0.05195085238665342 0.6045190095901489 31 26 20
0.03341318418582281 -0.05513175390660763 0.6415331363677979 26 23 16
0.04013126343488693 -0.05518048722296953 0.6421002149581909 26 23 16
0.04681925972302755 -0.055179841816425323 0.6420927047729492 26 23 16
0.053507725397745766 -0.055179841816425323 0.6420927047729492 26 23 16
0.06019619107246399 -0.055179841816425323 0.6420927047729492 26 23 16
0.0668846567471822 -0.055179841816425323 0.6420927047729492 26 23 16
0.07358390651643276 -0.05518792988732457 0.6421868205070496 26 23 16
0.08040521293878555 -0.05527858389541507 0.6432417035102844 22 17 13
0.08668120950460434 -0.055009229108691216 0.6401073932647705 33 25 23
0.0939510961373647 -0.05536403879523277 0.6442360877990723 28 20 17
0.10064920410513878 -0.05535706225782633 0.6441549062728882 28 20 18
0.10736955205599467 -0.05536242527887225 0.644217312335968 28 21 15
0.11407569485406081 -0.05536026367917657 0.6441921591758728 28 21 15
0.12056950852274895 -0.05526102473959327 0.6430373787879944 27 22 16
0.1270833369344473 -0.055180922616273165 0.6421052813529968 26 23 16
0.1337693134943644 -0.055179841816425323 0.6420927047729492 26 23 16
0.14046312496066093 -0.05518194194883108 0.6421171426773071 26 23 16
0.14735856652259827 -0.05525946244597435 0.6430191993713379 26 23 16
0.1542147801568111 -0.055316171143203974 0.6436790823936462 27 22 18
0.16070625185966492 -0.055242774076759815 0.6428250074386597 26 23 16
0.16721435822546482 -0.05518073821440339 0.6421031355857849 26 23 16
0.17390010754267374 -0.055179841816425323 0.6420927047729492 26 23 16
0.18058857321739197 -0.055179841816425323 0.6420927047729492 26 23 16
0.1872770388921102 -0.055179841816425323 0.6420927047729492 26 23 16
0.1939655045668284 -0.055179841816425323 0.6420927047729492 26 23 16
0.20065397024154663 -0.055179841816425323 0.6420927047729492 26 23 16
0.20734243591626486 -0.055179841816425323 0.6420927047729492 26 23 16
0.21403090159098306 -0.055179841816425323 0.6420927047729492 26 23 16
0.2207193672657013 -0.055179841816425323 0.6420927047729492 26 23 16
0.22740783294041952 -0.055179841816425323 0.6420927047729492 26 23 16
0.23409629861513773 -0.055179841816425323 0.6420927047729492 26 23 16
0.24078476428985596 -0.055179841816425323 0.6420927047729492 26 23 16
0.2474732299645742 -0.055179841816425323 0.6420927047729492 26 23 16
0.2541616956392924 -0.055179841816425323 0.6420927047729492 26 23 16
0.2608501613140106 -0.055179841816425323 0.6420927047729492 26 23 16
-0.271876926223437 -0.04927769287799796 0.6525046229362488 26 23 16
-0.26508000306785107 -0.04927769287799796 0.6525046229362488 26 23 16
-0.2582830799122651 -0.04927769287799796 0.6525046229362488 26 23 16
-0.25148615675667924 -0.04927769287799796 0.6525046229362488 26 23 16
-0.2446892336010933 -0.04927769287799796 0.6525046229362488 26 23 16
-0.23789231044550738 -0.04927769287799796 0.6525046229362488 26 23 16
-0.23109538728992143 -0.04927769287799796 0.6525046229362488 26 23 16
-0.22429846413433552 -0.04927769287799796 0.6525046229362488 26 23 16
-0.2175015409787496 -0.04927769287799796 0.6525046229362488 26 23 16
-0.2107159352550904 -0.049280339696755014 0.6525396704673767 26 23 16
-0.2040284126996994 -0.04930686640242735 0.6528909206390381 25 22 15
-0.18795396698017916 -0.04698849174504479 0.6221924424171448 26 21 15
-0.1872415915131569 -0.04848219780251384 0.6419711709022522 27 22 16
-0.1835233625024557 -0.04927942141269644 0.6525275111198425 26 23 16
-0.17672000204523405 -0.04927769287799796 0.6525046229362488 26 23 16
-0.1699230788896481 -0.04927769287799796 0.6525046229362488 26 23 16
-0.1631261557340622 -0.04927769287799796 0.6525046229362488 26 23 16
-0.15632923257847628 -0.04927769287799796 0.6525046229362488 26 23 16
-0.14953230942289034 -0.04927769287799796 0.6525046229362488 26 23 16
-0.14273551665246487 -0.04927773789192239 0.6525052189826965 26 23 16
-0.13594473401705423 -0.04927996608118216 0.6525347232818604 26 23 16
-0.12915203906595707 -0.04928169911727309 0.6525576710700989 26 23 16
-0.12235235050320625 -0.049280807841569185 0.6525458693504333 26 23 16
-0.115556792045633 -0.04928157307828466 0.6525560021400452 26 23 16
-0.10875468452771504 -0.04927946642662088 0.6525281071662903 26 23 16
-0.10195387527346611 -0.04927770638217529 0.6525048017501831 26 23 16
-0.09515692417820294 -0.04927769287799796 0.6525046229362488 26 23 16
-0.08836025123794873 -0.049277832421163716 0.6525064706802368 26 23 16
-0.08157610148191452 -0.04928556131199002 0.6526088118553162 26 23 16
-0.07477684319019318 -0.049284737557172775 0.6525979042053223 26 23 16
-0.06797223662336667 -0.049279871551940836 0.6525334715843201 26 23 16
-0.061087466776371 -0.04920934823652109 0.651599645614624 26 23 16
-0.04864150285720825 -0.04408136196434498 0.583698034286499 27 22 16
-0.04003796229759852 -0.041467889522512756 0.5490920543670654 14 29 8
-0.04063516855239868 -0.04910082866748174 0.6501626968383789 27 22 18
-0.03398507833480835 -0.04927836358547211 0.6525135040283203 26 23 16
-0.02703377604484558 -0.048998719081282616 0.648810625076294 26 22 21
-0.020262524485588074 -0.048967767506837845 0.6484007835388184 29 19 17
-0.013609396914641062 -0.04933406381557385 0.653251051902771 23 24 16
-0.006795800601442655 -0.049269554360459246 0.6523968577384949 26 23 16
0.0 -0.04927842210357388 0.6525142788887024 26 23 16
0.00679747574031353 -0.04928169911727309 0.6525576710700989 26 23 16
0.013637115557988485 -0.04943454389770826 0.6545815467834473 23 23 15
0.01848958246409893 -0.04468315762157241 0.5916666388511658 27 20 10
0.0192807341615359 -0.03494633066778382 0.4627376198768616 214 219 196
0.033607641234993935 -0.048731079790741205 0.6452667117118835 26 23 16
0.04076952859759331 -0.04926318038875858 0.6523124575614929 26 23 16
0.047578444704413414 -0.04927767487242818 0.6525043845176697 26 23 16
0.05437701940536499 -0.04927917383611202 0.6525242328643799 26 23 16
0.061177242547273636 -0.04928166760752598 0.6525572538375854 26 23 16
0.06797612955172856 -0.04928269392500321 0.6525708436965942 26 23 16
0.07478313334286213 -0.049288883339613676 0.6526528000831604 26 23 16
0.08120850473642349 -0.04906347161158919 0.6496680378913879 26 17 10
0.0823114812374115 -0.045904479920864105 0.6078386306762695 71 57 82
0.09489623208840688 -0.04914269161721071 0.65071702003479 29 19 17
0.10239415802061558 -0.049490509709964194 0.6553226113319397 33 23 22
0.10868125160535176 -0.04924619213367502 0.6520875096321106 28 19 14
0.11541674844920635 -0.049221848603338 0.6517651677131653 25 16 11
0.12220169976353645 -0.0492201290714244 0.6517423987388611 27 22 16
0.1291383902231852 -0.049276491006215416 0.6524887084960938 26 23 16
0.1359384631117185 -0.04927769287799796 0.6525046229362488 26 23 16
0.14273542538285255 -0.04927770638217529 0.6525048017501831 26 23 16
0.14953519155581793 -0.04927864267180363 0.6525171995162964 26 23 16
0.15633457340300083 -0.049279376398772 0.6525269150733948 26 23 16
0.16312862932682037 -0.04927844010914365 0.6525145173072815 26 23 16
0.1699230788896481 -0.04927769287799796 0.6525046229362488 26 23 16
0.17672000204523405 -0.04927769287799796 0.6525046229362488 26 23 16
0.18351692520081997 -0.04927769287799796 0.6525046229362488 26 23 16
0.19031384835640588 -0.04927769287799796 0.6525046229362488 26 23 16
0.19711077151199183 -0.04927769287799796 0.6525046229362488 26 23 16
0.20390769466757774 -0.04927769287799796 0.6525046229362488 26 23 16
0.21070461782316366 -0.04927769287799796 0.6525046229362488 26 23 16
0.2175015409787496 -0.04927769287799796 0.6525046229362488 26 23 16
0.22429846413433552 -0.04927769287799796 0.6525046229362488 26 23 16
0.23109538728992143 -0.04927769287799796 0.6525046229362488 26 23 16
0.23789231044550738 -0.04927769287799796 0.6525046229362488 26 23 16
0.2446892336010933 -0.04927769287799796 0.6525046229362488 26 23 16
0.25148615675667924 -0.04927769287799796 0.6525046229362488 26 23 16
0.2582830799122651 -0.04927769287799796 0.6525046229362488 26 23 16
0.26508000306785107 -0.04927769287799796 0.6525046229362488 26 23 16
-0.27621517578760785 -0.04315862121681372 0.6629164218902588 26 23 16
-0.26930979639291763 -0.04315862121681372 0.6629164218902588 26 23 16
-0.2624044169982274 -0.04315862121681372 0.6629164218902588 26 23 16
-0.25549903760353726 -0.04315862121681372 0.6629164218902588 26 23 16
-0.24859365820884705 -0.04315862121681372 0.6629164218902588 26 23 16
-0.24168827881415686 -0.04315862121681372 0.6629164218902588 26 23 16
-0.23478289941946665 -0.04315862121681372 0.6629164218902588 26 23 16
-0.22787752002477646 -0.04315862121681372 0.6629164218902588 26 23 16
-0.22097214063008627 -0.04315862121681372 0.6629164218902588 26 23 16
-0.21406799306472143 -0.04315886956950029 0.6629202365875244 26 23 16
-0.20731331780552864 -0.043190274542818465 0.6634026169776917 26 23 18
-0.2006639006237189 -0.04324653030683597 0.6642667055130005 27 22 16
-0.19352671255668005 -0.043197926909973226 0.6635201573371887 26 23 16
-0.1864469200372696 -0.04315900926788648 0.6629223823547363 26 23 16
-0.1795398642619451 -0.04315862121681372 0.6629164218902588 26 23 16
-0.17263448486725488 -0.04315862121681372 0.6629164218902588 26 23 16
-0.1657291054725647 -0.04315862121681372 0.6629164218902588 26 23 16
-0.1588237260778745 -0.04315862121681372 0.6629164218902588 26 23 16
-0.1519183466831843 -0.04315862121681372 0.6629164218902588 26 23 16
-0.14501955173909664 -0.043160580874731146 0.6629465222358704 26 23 16
-0.13835211594899496 -0.04323503623406092 0.6640901565551758 28 21 13
-0.1316091020901998 -0.04329246779282888 0.6649723052978516 28 21 13
-0.124597929418087 -0.043263169936835766 0.6645222902297974 27 22 18
-0.11771105478207271 -0.04327612308164438 0.6647212505340576 26 22 11
-0.11062117417653401 -0.0432113961627086 0.6637270450592041 26 23 18
-0.10358286090195179 -0.043159525375813246 0.6629303097724915 26 23 16
-0.09667531152566274 -0.04315862121681372 0.6629164218902588 26 23 16
-0.08977337864538033 -0.043160278194894396 0.6629418730735779 26 23 16
-0.08288175612688065 -0.04316758131608367 0.6630540490150452 28 19 20
-0.07578707858920097 -0.04306084010750055 0.6614145040512085 29 21 18
-0.06914690757791202 -0.043216817236195006 0.6638103127479553 29 21 18
-0.0621514767408371 -0.04316074773669243 0.6629490852355957 26 23 16
-0.055271158615748085 -0.043180592668553196 0.663253903388977 24 24 16
-0.04837386806805929 -0.04319095363219579 0.6634130477905273 26 23 18
-0.041476037353277206 -0.04320420557633042 0.6636165976524353 26 23 14
-0.03453006036579609 -0.04316257545724511 0.6629771590232849 26 23 18
-0.0277022123336792 -0.04328470677137375 0.6648530960083008 29 19 18
-0.020822152495384216 -0.04337948436538378 0.6663088798522949 24 24 16
-0.013843881587187449 -0.04326212995996078 0.6645063161849976 29 22 14
-0.0069056035329898196 -0.043160022081186376 0.6629379391670227 26 23 16
0.0 -0.04315862121681372 0.6629164218902588 26 23 16
0.006905628368258476 -0.04316017730161548 0.6629403233528137 26 23 16
0.013829678297042847 -0.043217744678258896 0.6638245582580566 26 23 18
0.02065063640475273 -0.04302215917656819 0.6608203649520874 27 22 16
0.02711108575264613 -0.04236107148850957 0.6506660580635071 36 27 22
0.03052374968926112 -0.0381546871115764 0.5860559940338135 14 24 13
0.03981664404273033 -0.041475670877844095 0.6370663046836853 27 22 16
0.048338976999123894 -0.043159800892074905 0.6629345417022705 26 23 16
0.055323963363965355 -0.04322184637809793 0.6638875603675842 26 24 9
0.06233326904475689 -0.04328699239219228 0.6648882031440735 26 21 18
0.06928224116563797 -0.04330140072852373 0.6651095151901245 28 21 15
0.07619272172451019 -0.04329131916165352 0.664954662322998 28 20 18
0.08296468108892441 -0.04321077140048146 0.6637174487113953 27 22 18
0.08874381519854069 -0.04266529576852918 0.6553389430046082 27 23 14
0.09698085611065228 -0.04329502504939834 0.6650115847587585 28 21 15
0.10348578914999962 -0.04311907881249984 0.6623090505599976 28 19 14
0.10374128818511963 -0.040523940697312355 0.6224477291107178 33 19 32
0.10779958218336105 -0.039632199332118034 0.608750581741333 33 22 39
0.12006264925003052 -0.04168841987848282 0.6403341293334961 29 19 28
0.13113299695154032 -0.043135854260375105 0.6625667214393616 26 23 16
0.13810758789380392 -0.04315862121681372 0.6629164218902588 26 23 16
0.1450129672884941 -0.04315862121681372 0.6629164218902588 26 23 16
0.1519183466831843 -0.04315862121681372 0.6629164218902588 26 23 16
0.1588237260778745 -0.04315862121681372 0.6629164218902588 26 23 16
0.1657291054725647 -0.04315862121681372 0.6629164218902588 26 23 16
0.17263448486725488 -0.04315862121681372 0.6629164218902588 26 23 16
0.1795398642619451 -0.04315862121681372 0.6629164218902588 26 23 16
0.18644524365663528 -0.04315862121681372 0.6629164218902588 26 23 16
0.19335062305132547 -0.04315862121681372 0.6629164218902588 26 23 16
0.20025600244601569 -0.04315862121681372 0.6629164218902588 26 23 16
0.20716138184070587 -0.04315862121681372 0.6629164218902588 26 23 16
0.21406676123539606 -0.04315862121681372 0.6629164218902588 26 23 16
0.22097214063008627 -0.04315862121681372 0.6629164218902588 26 23 16
0.22787752002477646 -0.04315862121681372 0.6629164218902588 26 23 16
0.23478289941946665 -0.04315862121681372 0.6629164218902588 26 23 16
0.24168827881415686 -0.04315862121681372 0.6629164218902588 26 23 16
0.24859365820884705 -0.04315862121681372 0.6629164218902588 26 23 16
0.25549903760353726 -0.04315862121681372 0.6629164218902588 26 23 16
0.2624044169982274 -0.04315862121681372 0.6629164218902588 26 23 16
0.26930979639291763 -0.04315862121681372 0.6629164218902588 26 23 16
-0.2805534253517787 -0.03682263707742095 0.6733282208442688 26 23 16
-0.2735395897179842 -0.03682263707742095 0.6733282208442688 26 23 16
-0.2665257540841897 -0.03682263707742095 0.6733282208442688 26 23 16
-0.2595119184503953 -0.03682263707742095 0.6733282208442688 26 23 16
-0.2524980828166008 -0.03682263707742095 0.6733282208442688 26 23 16
-0.24548424718280634 -0.03682263707742095 0.6733282208442688 26 23 16
-0.23847041154901186 -0.03682263707742095 0.6733282208442688 26 23 16
-0.23145684227347374 -0.036822679452598095 0.6733289957046509 26 23 16
-0.22445168097813925 -0.03682410391047597 0.6733550429344177 26 23 16
-0.21744181960821152 -0.036824824288487434 0.6733682155609131 26 23 16
-0.2104237675666809 -0.03682415932416916 0.6733560562133789 26 23 16
-0.2034048344939947 -0.03682328900322318 0.6733401417732239 26 23 16
-0.19638280818859735 -0.036821776535362005 0.6733124852180481 26 23 16
-0.18938655406236649 -0.036825163289904594 0.6733744144439697 26 23 16
-0.18235732118288675 -0.03682215139269829 0.6733193397521973 26 23 16
-0.17534572010238966 -0.03682260122150183 0.6733275651931763 26 23 16
-0.1683320552110672 -0.03682263707742095 0.6733282208442688 26 23 16
-0.16131821957727274 -0.03682263707742095 0.6733282208442688 26 23 16
-0.15430438394347826 -0.03682263707742095 0.6733282208442688 26 23 16
-0.1473034042865038 -0.03682585107162595 0.6733869910240173 26 23 16
-0.13944080720345178 -0.036603211890906096 0.6693158745765686 31 21 19
-0.13007436816891035 -0.03594160173088312 0.6572178602218628 30 21 16
-0.12346123158931732 -0.03600952588021755 0.6584599018096924 22 14 11
-0.11910081965227921 -0.036781135480850935 0.6725693345069885 27 22 19
-0.1124523679415385 -0.03689843323081732 0.674714207649231 26 23 18
-0.10521168820559978 -0.036824090871959925 0.6733548045158386 26 23 16
-0.09819369887312253 -0.03682263707742095 0.6733282208442688 26 23 16
-0.09110429013768832 -0.03679211717098951 0.6727701425552368 26 23 16
-0.07305122166872025 -0.03195990948006511 0.584409773349762 22 26 11
-0.06071854320665201 -0.02897930471226573 0.5299072861671448 11 37 0
-0.06987228368719418 -0.03668294893577695 0.6707739233970642 26 23 16
-0.06312662735581398 -0.036823865957558155 0.6733506917953491 26 23 16
-0.05611159404118856 -0.03682323358952999 0.6733391284942627 26 23 16
-0.04909800551831722 -0.03682350413873792 0.673344075679779 26 23 16
-0.042083632200956345 -0.0368231781758368 0.6733381152153015 26 23 18
-0.035046894724170365 -0.036799239460378885 0.672900378704071 26 23 16
-0.02658140907684962 -0.034888099413365126 0.6379538178443909 35 25 24
-0.0199691504240036 -0.0349460132420063 0.6390128135681152 17 4 13
-0.014054808765649796 -0.03689387300983071 0.6746308207511902 27 23 14
-0.007014067222674687 -0.03682385291904211 0.67335045337677 26 23 16
0.0 -0.03682263707742095 0.6733282208442688 26 23 16
0.007013839359084765 -0.03682265663519502 0.6733285784721375 26 23 16
0.014027910927931467 -0.0368232661858201 0.6733397245407104 26 23 16
0.02104312554001808 -0.03682546969503164 0.6733800172805786 26 23 16
0.028003362317879994 -0.03675441304221749 0.6720806956291199 29 22 16
0.031174120182792347 -0.03273282619193196 0.598543107509613 23 26 17
0.0405181422829628 -0.03545337449759245 0.6482902765274048 27 22 16
0.049102564652760826 -0.03682692348957062 0.6734066009521484 26 23 16
0.05627617736657461 -0.036931241396814585 0.6753141283988953 26 21 18
0.06313268467783928 -0.036827399395406246 0.6734153032302856 32 27 24
0.06897402927279472 -0.03621136536821723 0.6621506810188293 27 22 16
0.07591027952730656 -0.036229906138032675 0.6624897122383118 27 20 14
0.08363507688045502 -0.03659034613519907 0.6690806150436401 26 23 16
0.09118651412427425 -0.03682532301172614 0.6733773350715637 26 23 16
0.09850146000583966 -0.036938047502189875 0.6754385828971863 28 21 15
0.10503420606255531 -0.03676197212189436 0.672218918800354 26 17 12
0.10300996899604797 -0.03380014607682824 0.6180598139762878 36 25 39
0.10254923502604167 -0.03166961669921875 0.5791015625 99 68 135
0.12137417122721672 -0.035400799941271544 0.6473289132118225 27 20 27
0.13318629252413908 -0.03680147556588054 0.672941267490387 26 23 16
0.14027842630942663 -0.03682308690622449 0.6733364462852478 26 23 16
0.14729049615561962 -0.036822624038904905 0.6733279824256897 26 23 16
0.15430438394347826 -0.03682263707742095 0.6733282208442688 26 23 16
0.16131821957727274 -0.03682263707742095 0.6733282208442688 26 23 16
0.1683320552110672 -0.03682263707742095 0.6733282208442688 26 23 16
0.17534589084486166 -0.03682263707742095 0.6733282208442688 26 23 16
0.18235972647865614 -0.03682263707742095 0.6733282208442688 26 23 16
0.1893735621124506 -0.03682263707742095 0.6733282208442688 26 23 16
0.19638739774624506 -0.03682263707742095 0.6733282208442688 26 23 16
0.20340123338003954 -0.03682263707742095 0.6733282208442688 26 23 16
0.210415069013834 -0.03682263707742095 0.6733282208442688 26 23 16
0.21742890464762846 -0.03682263707742095 0.6733282208442688 26 23 16
0.22444274028142294 -0.03682263707742095 0.6733282208442688 26 23 16
0.2314565759152174 -0.03682263707742095 0.6733282208442688 26 23 16
0.23847041154901186 -0.03682263707742095 0.6733282208442688 26 23 16
0.24548424718280634 -0.03682263707742095 0.6733282208442688 26 23 16
0.2524980828166008 -0.03682263707742095 0.6733282208442688 26 23 16
0.2595119184503953 -0.03682263707742095 0.6733282208442688 26 23 16
0.2665257540841897 -0.03682263707742095 0.6733282208442688 26 23 16
0.2735395897179842 -0.03682263707742095 0.6733282208442688 26 23 16
-0.28489169975121814 -0.03026974309856693 0.6837400794029236 26 23 16
-0.2777694072574377 -0.03026974309856693 0.6837400794029236 26 23 16
-0.27064711476365727 -0.03026974309856693 0.6837400794029236 26 23 16
-0.2635248222698768 -0.03026974309856693 0.6837400794029236 26 23 16
-0.25640252977609634 -0.03026974309856693 0.6837400794029236 26 23 16
-0.24928023728231588 -0.03026974309856693 0.6837400794029236 26 23 16
-0.24215794478853545 -0.03026974309856693 0.6837400794029236 26 23 16
-0.2350460197776556 -0.03027107830469807 0.6837702393531799 26 23 16
-0.22827957073847452 -0.03031838048870365 0.6848387122154236 26 22 13
-0.22136161600550017 -0.030347963484625023 0.6855069398880005 28 20 17
-0.21395396441221237 -0.03031014495839675 0.6846526861190796 26 23 16
-0.20656848512589931 -0.030272967647761106 0.6838129162788391 26 23 16
-0.19779208054145178 -0.030022012225041788 0.6781442761421204 33 28 24
-0.18548345379531384 -0.029196469578891993 0.6594967246055603 23 14 17
-0.184807817141215 -0.030208970109621685 0.6823673248291016 27 22 16
-0.17806094450255236 -0.0302703605654339 0.683754026889801 26 23 16
-0.17093081772327423 -0.030268998971829813 0.6837232708930969 26 23 16
-0.16381272735695043 -0.03026974309856693 0.6837400794029236 26 23 16
-0.15669043486317 -0.03026974309856693 0.6837400794029236 26 23 16
-0.14957277104258537 -0.030270679853856564 0.6837612390518188 26 23 16
-0.13039340575536093 -0.027708598723014195 0.6258883476257324 33 27 11
-0.08933777486284573 -0.01998344964037339 0.4513908624649048 24 19 0
-0.09181769751012325 -0.0216791785787791 0.48969438672065735 20 16 0
-0.11671843193471432 -0.02917960798367858 0.6591158509254456 28 21 15
-0.11419564485549927 -0.030333218164741993 0.6851738691329956 26 23 16
-0.1068374514579773 -0.0302706112464269 0.6837596893310547 26 23 16
-0.09971209491292636 -0.03026974309856693 0.6837400794029236 26 23 16
-0.09254415022830169 -0.030254818343867857 0.683402955532074 26 23 16
-0.07850378751754761 -0.02780342474579811 0.6280303001403809 26 23 14
-0.06798864156007767 -0.026268338784575462 0.5933554172515869 23 25 11
-0.07112240418791771 -0.030227021779865026 0.68277508020401 26 23 18
-0.06410432048141956 -0.03027148467178146 0.6837794184684753 26 23 16
-0.05697833995024363 -0.03026974309856693 0.6837400794029236 26 23 16
-0.04985604745646318 -0.03026974309856693 0.6837400794029236 26 23 16
-0.042733754962682724 -0.03026974309856693 0.6837400794029236 26 23 16
-0.03553657792508602 -0.030206091236323118 0.6823022961616516 26 23 16
-0.024443877240022022 -0.0259716195675234 0.5866530537605286 56 6 57
-0.018350178375840187 -0.025996086032440264 0.587205708026886 47 5 43
-0.014241577436526617 -0.03026335205261906 0.6835957169532776 30 20 19
-0.0071224601318438845 -0.03027045556033651 0.6837561726570129 26 23 16
0.0 -0.03026974309856693 0.6837400794029236 26 23 16
0.007122292493780454 -0.03026974309856693 0.6837400794029236 26 23 16
0.014244584987560907 -0.03026974309856693 0.6837400794029236 26 23 16
0.021367087960243225 -0.030270041277011234 0.6837468147277832 26 23 16
0.028501200179258983 -0.030282525190462668 0.6840288043022156 26 23 16
0.03560172083477179 -0.030261462709556024 0.6835530400276184 26 23 16
0.04272787272930145 -0.030265576516588528 0.6836459636688232 26 23 16
0.04986081086099148 -0.03027263516560197 0.6838054060935974 26 23 16
0.0571490873893102 -0.030360452675571043 0.6857890486717224 28 21 15
0.06306728906929493 -0.029781775393833716 0.6727177500724792 27 23 12
0.06299376487731934 -0.026772350072860718 0.6047401428222656 33 33 35
0.067755243430535 -0.026178162234524887 0.5913184881210327 27 20 27
0.08189123123884201 -0.02900314439708988 0.6551298499107361 24 23 19
0.09259016563495 -0.030269861842195194 0.6837427616119385 26 23 16
0.09984972948829333 -0.030311525023231905 0.6846838593482971 27 22 16
0.10671069845557213 -0.030234697895745438 0.6829484701156616 29 22 16
0.11033594608306885 -0.029307985678315163 0.6620156764984131 29 11 23
0.11618153130014737 -0.029045382825036842 0.6560839414596558 31 17 30
0.1252325288951397 -0.029568791544685762 0.6679068207740784 37 27 26
0.13525669338802496 -0.03025478667890032 0.6834022402763367 29 20 15
0.14250043779611588 -0.030281343031674623 0.6840021014213562 26 23 16
0.14956792071461678 -0.03026969823986292 0.6837390661239624 26 23 16
0.15669043486317 -0.03026974309856693 0.6837400794029236 26 23 16
0.16381272735695043 -0.03026974309856693 0.6837400794029236 26 23 16
0.1709350198507309 -0.03026974309856693 0.6837400794029236 26 23 16
0.17805731234451136 -0.03026974309856693 0.6837400794029236 26 23 16
0.1851796048382918 -0.03026974309856693 0.6837400794029236 26 23 16
0.19230189733207226 -0.03026974309856693 0.6837400794029236 26 23 16
0.19942418982585272 -0.03026974309856693 0.6837400794029236 26 23 16
0.20654648231963316 -0.03026974309856693 0.6837400794029236 26 23 16
0.21366877481341362 -0.03026974309856693 0.6837400794029236 26 23 16
0.22079106730719408 -0.03026974309856693 0.6837400794029236 26 23 16
0.22791335980097452 -0.03026974309856693 0.6837400794029236 26 23 16
0.23503565229475498 -0.03026974309856693 0.6837400794029236 26 23 16
0.24215794478853545 -0.03026974309856693 0.6837400794029236 26 23 16
0.24928023728231588 -0.03026974309856693 0.6837400794029236 26 23 16
0.25640252977609634 -0.03026974309856693 0.6837400794029236 26 23 16
0.2635248222698768 -0.03026974309856693 0.6837400794029236 26 23 16
0.27064711476365727 -0.03026974309856693 0.6837400794029236 26 23 16
0.2777694072574377 -0.03026974309856693 0.6837400794029236 26 23 16
-0.28922999898592633 -0.023499937417606514 0.6941519975662231 26 23 16
-0.28199924901127815 -0.023499937417606514 0.6941519975662231 26 23 16
-0.27476849903663 -0.023499937417606514 0.6941519975662231 26 23 16
-0.26753774906198186 -0.023499937417606514 0.6941519975662231 26 23 16
-0.2603069990873337 -0.023499937417606514 0.6941519975662231 26 23 16
-0.2530762491126855 -0.023499937417606514 0.6941519975662231 26 23 16
-0.24584549913803735 -0.023499937417606514 0.6941519975662231 26 23 16
-0.23863298445940018 -0.02350173331797123 0.6942050457000732 26 23 16
-0.23187812169392905 -0.02355012173453967 0.6956343650817871 26 22 13
-0.2138059213757515 -0.02241513691842556 0.6621086597442627 27 22 18
-0.20653977990150452 -0.02237514282266299 0.6609272956848145 22 18 15
-0.20999703370034695 -0.023534150328487158 0.6951625943183899 26 23 16
-0.19059005628029504 -0.02212206010396282 0.6534516215324402 27 21 7
-0.14471042342483997 -0.017418847264101107 0.5145259499549866 135 107 218
-0.1841681698958079 -0.023021021236975987 0.6800055503845215 27 21 21
-0.18030349165201187 -0.023439453914761543 0.6923654079437256 24 21 14
-0.17198434472084045 -0.023289546680947144 0.6879373788833618 26 23 16
-0.16627950283388296 -0.02349601670478781 0.6940361857414246 26 23 16
-0.1590884104371071 -0.02350169699639082 0.6942039728164673 26 23 16
-0.15185423754155636 -0.02350125104809801 0.6941908001899719 26 23 16
-0.129869244992733 -0.021103752311319113 0.6233723759651184 43 37 25
-0.06336947716772556 -0.010839515831321478 0.3201826214790344 208 216 113
-0.07529005967080593 -0.013594038551673293 0.40154698491096497 25 24 0
-0.11768221855163574 -0.02249807119369507 0.6645584106445312 29 19 17
-0.11596166094144185 -0.023554712378730375 0.6957699656486511 27 22 16
-0.10846473276615143 -0.02350069209933281 0.6941742897033691 26 23 16
-0.1012304996450742 -0.023499937417606514 0.6941519975662231 26 23 16
-0.09399963666995366 -0.023499909167488415 0.6941511631011963 26 23 16
-0.08672483265399933 -0.023487975510458153 0.6937986612319946 26 23 18
-0.07947030787666638 -0.023479863690833252 0.6935590505599976 26 23 16
-0.07230926305055618 -0.02350051049143076 0.6941689252853394 26 23 16
-0.06507678888738155 -0.02349995154266556 0.6941524147987366 26 23 16
-0.057845999797185264 -0.023499937417606514 0.6941519975662231 26 23 16
-0.0506152498225371 -0.023499937417606514 0.6941519975662231 26 23 16
-0.04338449984788895 -0.023499937417606514 0.6941519975662231 26 23 16
-0.03615505062043667 -0.023500782903283834 0.694176971912384 26 23 16
-0.02882103870312373 -0.02341709394628803 0.6917049288749695 29 20 13
-0.021635496988892555 -0.023438455071300268 0.6923359036445618 29 21 19
-0.014498230069875717 -0.02355962386354804 0.6959150433540344 26 23 18
-0.007231848314404488 -0.023503507021814585 0.6942574381828308 26 23 16
0.0 -0.023503787505129974 0.6942657232284546 26 23 16
0.0072314658512671786 -0.02350226401661833 0.6942207217216492 26 23 16
0.014461534718672434 -0.023499993917842705 0.6941536664962769 26 23 16
0.021692249923944473 -0.023499937417606514 0.6941519975662231 26 23 16
0.028923146426677704 -0.023500056471675634 0.6941555142402649 26 23 16
0.036154051000873245 -0.02350013315056761 0.6941577792167664 26 23 16
0.04338449984788895 -0.023499937417606514 0.6941519975662231 26 23 16
0.050620065381129585 -0.023502173212667305 0.6942180395126343 26 23 16
0.058009068171183266 -0.0235661839445432 0.6961088180541992 29 19 18
0.06407902389764786 -0.02313964751859506 0.6835095882415771 26 19 13
0.06257907797892888 -0.020338200343151886 0.6007591485977173 26 19 26
0.06572318263351917 -0.019418213050812483 0.5735841393470764 8 17 48
0.08298107236623764 -0.022474040432522695 0.6638485789299011 24 23 19
0.09399952366948128 -0.02349988091737032 0.6941503286361694 26 23 16
0.10122486700614293 -0.023498629840711754 0.6941133737564087 26 23 16
0.10847453027963638 -0.023502814893921215 0.6942369937896729 26 23 16
0.11496866742769878 -0.023353010571251314 0.6898120045661926 26 16 14
0.1151890034476916 -0.022021427129705746 0.6504790782928467 39 12 17
0.12065368518233299 -0.021784693157921236 0.6434863209724426 49 25 25
0.13226140352586904 -0.02262366112942497 0.6682681441307068 33 18 15
0.14474410563707352 -0.023520917166024446 0.6947717070579529 27 22 16
0.15184872224926949 -0.023500397490958374 0.6941655874252319 26 23 16
0.15907649944225946 -0.023499937417606514 0.6941519975662231 26 23 16
0.16630724941690764 -0.023499937417606514 0.6941519975662231 26 23 16
0.1735379993915558 -0.023499937417606514 0.6941519975662231 26 23 16
0.18076874936620393 -0.023499937417606514 0.6941519975662231 26 23 16
0.1879994993408521 -0.023499937417606514 0.6941519975662231 26 23 16
0.1952302996069193 -0.02349994347120325 0.6941521763801575 26 23 16
0.20246833562850952 -0.02350078895688057 0.6941771507263184 26 23 16
0.20970752214392027 -0.023501705067853134 0.6942042112350464 26 23 16
0.21693848073482513 -0.023501668746272724 0.6942031383514404 26 23 16
0.22416504782934984 -0.02350117436920603 0.6941885352134705 26 23 16
0.23139053583145142 -0.023500601295381784 0.6941716074943542 26 23 16
0.2386147491633892 -0.023499937417606514 0.6941519975662231 26 23 16
0.24584549913803735 -0.023499937417606514 0.6941519975662231 26 23 16
0.2530762491126855 -0.023499937417606514 0.6941519975662231 26 23 16
0.2603069990873337 -0.023499937417606514 0.6941519975662231 26 23 16
0.26753774906198186 -0.023499937417606514 0.6941519975662231 26 23 16
0.27476849903663 -0.023499937417606514 0.6941519975662231 26 23 16
0.28199924901127815 -0.023499937417606514 0.6941519975662231 26 23 16
-0.29356824855009717 -0.016513213980942965 0.7045637965202332 26 23 16
-0.2862290423363447 -0.016513213980942965 0.7045637965202332 26 23 16
-0.27888983612259227 -0.016513213980942965 0.7045637965202332 26 23 16
-0.2715506299088399 -0.016513213980942965 0.7045637965202332 26 23 16
-0.26421142369508743 -0.016513213980942965 0.7045637965202332 26 23 16
-0.256872217481335 -0.016513213980942965 0.7045637965202332 26 23 16
-0.24953301126758257 -0.016513213980942965 0.7045637965202332 26 23 16
-0.2422074507921934 -0.016514144372195005 0.7046034932136536 26 23 16
-0.2346810301144918 -0.016501009929925203 0.7040430903434753 30 20 18
-0.18033251849313578 -0.013088650535792112 0.5584490895271301 14 26 26
-0.17419565469026566 -0.013064674101769924 0.5574260950088501 19 22 27
-0.21273483460148176 -0.016505288891494274 0.7042256593704224 25 20 16
-0.20439581076304117 -0.016424663364887238 0.7007856369018555 27 22 16
-0.1912682242691517 -0.015939018689095974 0.6800647974014282 27 22 16
-0.19051960359017053 -0.016487273387610912 0.7034569978713989 26 22 13
-0.1643969522168239 -0.01479572569951415 0.6312842965126038 21 18 13
-0.12730450928211212 -0.011934797745198011 0.5092180371284485 171 201 149
-0.16721703174213567 -0.01635818788781762 0.6979493498802185 24 21 12
-0.16194907079140344 -0.016562973149120808 0.7066868543624878 25 22 17
-0.1545576173812151 -0.016559744719415903 0.7065491080284119 29 21 19
-0.14090107132991156 -0.01585137052461505 0.6763251423835754 26 23 16
-0.1205674596130848 -0.014277725480496883 0.6091829538345337 26 25 7
-0.11586735025048256 -0.01448341878131032 0.617959201335907 26 24 12
-0.12261186291774114 -0.01622804068028927 0.6923964023590088 27 22 16
-0.11755179365475972 -0.016530720982700586 0.7053107619285583 26 23 16
-0.11008965782821178 -0.016513448674231768 0.7045738101005554 26 23 16
-0.102748886992534 -0.016513213980942965 0.7045637965202332 26 23 16
-0.09540968077878158 -0.016513213980942965 0.7045637965202332 26 23 16
-0.08807047456502914 -0.016513213980942965 0.7045637965202332 26 23 16
-0.08073126835127671 -0.016513213980942965 0.7045637965202332 26 23 16
-0.07339206213752429 -0.016513213980942965 0.7045637965202332 26 23 16
-0.06605285592377186 -0.016513213980942965 0.7045637965202332 26 23 16
-0.05871364971001943 -0.016513213980942965 0.7045637965202332 26 23 16
-0.051374443496267 -0.016513213980942965 0.7045637965202332 26 23 16
-0.04403523728251457 -0.016513213980942965 0.7045637965202332 26 23 16
-0.03669727283219496 -0.016513772774487734 0.7045876383781433 26 23 16
-0.02939526488383611 -0.016534836497157812 0.7054863572120667 27 22 16
-0.022066399455070496 -0.01654979959130287 0.7061247825622559 26 23 18
-0.014692002286513647 -0.016528502572327852 0.705216109752655 34 27 19
-0.0073189033816258115 -0.016467532608658075 0.7026147246360779 28 21 13
0.0 -0.01651087263599038 0.7044638991355896 23 18 15
0.0073525986323753996 -0.01654334692284465 0.7058494687080383 25 19 19
0.01468264932433764 -0.016517980489879847 0.7047671675682068 26 23 18
0.022017698734998703 -0.016513274051249027 0.7045663595199585 26 23 16
0.029356824855009716 -0.016513213980942965 0.7045637965202332 26 23 16
0.036696031068762146 -0.016513213980942965 0.7045637965202332 26 23 16
0.04403523728251457 -0.016513213980942965 0.7045637965202332 26 23 16
0.051378220319747925 -0.016514427959918976 0.704615592956543 26 23 16
0.05886773268381754 -0.016556549817323685 0.7064127922058105 28 20 17
0.06572834216058254 -0.016432085540145636 0.7011023163795471 29 20 15
0.0675114927192529 -0.015190085861831903 0.6481103301048279 30 22 20
0.0733929139872392 -0.015012186951935291 0.6405199766159058 28 23 19
0.08389361202716827 -0.01573005225509405 0.6711488962173462 27 22 16
0.09510886544982593 -0.016461149789392948 0.7023423910140991 28 25 18
0.08924546961983044 -0.014343021903187037 0.6119689345359802 24 18 6
0.10154613293707371 -0.015231919940561056 0.6498952507972717 29 20 13
0.11660801370938619 -0.016398001927882433 0.6996480822563171 28 12 13
0.1147198025137186 -0.015183503273874521 0.6478294730186462 40 15 19
0.11459222808480263 -0.014324028510600328 0.611158549785614 146 88 100
0.13329089432954788 -0.015784448012709618 0.6734697818756104 35 17 15
0.14694257328907648 -0.016531039495021105 0.7053243517875671 27 22 16
0.15412675961852074 -0.01651358138769865 0.7045794725418091 26 23 16
0.16146253670255342 -0.016513213980942965 0.7045637965202332 26 23 16
0.16880174291630587 -0.016513213980942965 0.7045637965202332 26 23 16
0.1761409491300583 -0.016513213980942965 0.7045637965202332 26 23 16
0.1834801553438107 -0.016513213980942965 0.7045637965202332 26 23 16
0.19081936155756316 -0.016513213980942965 0.7045637965202332 26 23 16
0.19816552475094795 -0.016513793729245663 0.7045885324478149 26 23 16
0.20581796516974768 -0.016538943629711866 0.7056615948677063 24 23 18
0.2128068928917249 -0.01651087962090969 0.7044641971588135 22 17 14
0.21921148523688316 -0.016440861392766237 0.7014767527580261 33 18 21
0.2279001660645008 -0.01654114108532667 0.705755352973938 24 23 18
0.23509150743484497 -0.016529871616512537 0.7052745223045349 27 22 16
0.2421967349946499 -0.01651341374963522 0.704572319984436 26 23 16
0.24953301126758257 -0.016513213980942965 0.7045637965202332 26 23 16
0.256872217481335 -0.016513213980942965 0.7045637965202332 26 23 16
0.26421142369508743 -0.016513213980942965 0.7045637965202332 26 23 16
0.2715506299088399 -0.016513213980942965 0.7045637965202332 26 23 16
0.27888983612259227 -0.016513213980942965 0.7045637965202332 26 23 16
0.2862290423363447 -0.016513213980942965 0.7045637965202332 26 23 16
-0.297906498114268 -0.009309578066070875 0.7149755954742432 26 23 16
-0.2904588356614113 -0.009309578066070875 0.7149755954742432 26 23 16
-0.28301117320855457 -0.009309578066070875 0.7149755954742432 26 23 16
-0.2755635107556979 -0.009309578066070875 0.7149755954742432 26 23 16
-0.2681158483028412 -0.009309578066070875 0.7149755954742432 26 23 16
-0.26066818584998447 -0.009309578066070875 0.7149755954742432 26 23 16
-0.2532205233971278 -0.009309578066070875 0.7149755954742432 26 23 16
-0.2457907274365425 -0.009310254827141762 0.7150275707244873 26 23 16
-0.23896459738413492 -0.00933455458531777 0.7168937921524048 26 21 17
-0.22687299363315105 -0.009148104581981897 0.7025744318962097 25 18 12
-0.20858505740761757 -0.008691044058650732 0.6674721837043762 20 11 12
-0.21366633474826813 -0.009209755808115005 0.7073092460632324 26 22 10
-0.20885710418224335 -0.00932397786527872 0.7160815000534058 26 23 16
-0.2011062651872635 -0.009310475240151087 0.7150444984436035 26 23 16
-0.1939489742120107 -0.009324469914038977 0.7161192893981934 23 23 11
-0.16999637397627035 -0.008499818698813518 0.6527860760688782 28 21 13
-0.12357451021671295 -0.006436172407120466 0.4942980408668518 168 105 176
-0.16842574315766493 -0.00915357299769918 0.7029944062232971 22 10 10
-0.16181153431534767 -0.00919383717700839 0.7060866951942444 18 18 6
-0.15668143518269062 -0.009326275903731585 0.7162579894065857 30 18 18
-0.14910423507293066 -0.009319014692058166 0.7157003283500671 24 23 18
-0.1412505879998207 -0.009292801842093468 0.7136871814727783 26 23 16
-0.13384105637669563 -0.009294517803937197 0.7138189673423767 26 23 16
-0.1265895739197731 -0.00930805690586567 0.7148587703704834 26 23 16
-0.11916431784629822 -0.009309712331742048 0.7149859070777893 26 23 16
-0.11171496473252773 -0.009309580394377312 0.7149757742881775 26 23 16
-0.10426727433999379 -0.009309578066070875 0.7149755954742432 26 23 16
-0.09681946660081546 -0.009309564096232256 0.7149745225906372 26 23 16
-0.08937176316976547 -0.009309558663517237 0.7149741053581238 26 23 16
-0.08193040639162064 -0.009310273453593254 0.7150290012359619 26 23 16
-0.07447483638922374 -0.009309354548652967 0.7149584293365479 26 23 16
-0.06702888384461403 -0.009309567200640837 0.7149747610092163 26 23 16
-0.0595812996228536 -0.009309578066070875 0.7149755954742432 26 23 16
-0.052133637169996895 -0.009309578066070875 0.7149755954742432 26 23 16
-0.0446859747171402 -0.009309578066070875 0.7149755954742432 26 23 16
-0.03723833399514357 -0.009309583498785893 0.7149760127067566 26 23 16
-0.029791181286176045 -0.009309744151930014 0.7149883508682251 26 23 16
-0.02231968566775322 -0.009299869028230509 0.714229941368103 26 23 14
-0.01429050788283348 -0.008931567426770926 0.6859443783760071 20 12 36
-0.006870417545239131 -0.008588021931548914 0.6595600843429565 17 11 21
0.0 -0.008827464965482553 0.6779493093490601 28 19 40
0.0074292390296856565 -0.00928654878710707 0.713206946849823 27 22 18
0.014920037239789963 -0.009325023274868727 0.7161617875099182 26 23 16
0.022343600168824196 -0.009309833403676748 0.7149952054023743 26 23 16
0.0297906498114268 -0.009309578066070875 0.7149755954742432 26 23 16
0.0372383122642835 -0.009309578066070875 0.7149755954742432 26 23 16
0.0446859747171402 -0.009309578066070875 0.7149755954742432 26 23 16
0.05213759218653043 -0.00931028431902329 0.7150298357009888 26 23 16
0.05975294609864553 -0.009336397827913364 0.7170353531837463 28 21 15
0.06700593419373035 -0.009306379749129215 0.7147299647331238 29 20 15
0.07003325348099072 -0.00875415668512384 0.672319233417511 33 24 17
0.07186787637571494 -0.00816680413360397 0.6272105574607849 107 98 91
0.08507371693849564 -0.008861845514426628 0.6805897355079651 27 22 16
0.09581876670320828 -0.009213342952231566 0.7075847387313843 26 23 16
0.06870250962674618 -0.0061341526452451944 0.47110292315483093 236 238 173
0.0885157473385334 -0.007376312278211117 0.5665007829666138 29 21 8
0.11876366535822551 -0.009278411356111368 0.712581992149353 25 22 17
0.12050763083000977 -0.008860855208088955 0.6805136799812317 35 16 18
0.1269792504608631 -0.008818003504226605 0.6772226691246033 35 17 17
0.1377541602899631 -0.009062773703287045 0.6960210204124451 25 22 15
0.14908455312252045 -0.009317784570157528 0.7156058549880981 26 23 16
0.1564029324799776 -0.009309698361903429 0.7149848341941833 26 23 16
0.16384857396284738 -0.009309578066070875 0.7149755954742432 26 23 16
0.1712962364157041 -0.009309578066070875 0.7149755954742432 26 23 16
0.1787438988685608 -0.009309578066070875 0.7149755954742432 26 23 16
0.18619156132141748 -0.009309578066070875 0.7149755954742432 26 23 16
0.1936392237742742 -0.009309578066070875 0.7149755954742432 26 23 16
0.20109843648970127 -0.009310112800449133 0.7150166630744934 26 23 16
0.2089371606707573 -0.009327551815658808 0.7163559794425964 23 22 18
0.19158037876089415 -0.008257774946590265 0.6341971158981323 30 11 4
0.16467289999127388 -0.006861370832969745 0.5269532799720764 210 128 134
0.22701931186020374 -0.009154004510492086 0.7030275464057922 27 22 19
0.23870780070622763 -0.009324523465087017 0.7161234021186829 27 22 16
0.2457795199006796 -0.009309830299268166 0.7149949669837952 26 23 16
0.2532205233971278 -0.009309578066070875 0.7149755954742432 26 23 16
0.26066818584998447 -0.009309578066070875 0.7149755954742432 26 23 16
0.2681158483028412 -0.009309578066070875 0.7149755954742432 26 23 16
0.2755635107556979 -0.009309578066070875 0.7149755954742432 26 23 16
0.28301117320855457 -0.009309578066070875 0.7149755954742432 26 23 16
0.2904588356614113 -0.009309578066070875 0.7149755954742432 26 23 16
-0.30224477251370746 -0.0018890298282106717 0.725387454032898 26 23 16
-0.2946886532008648 -0.0018890298282106717 0.725387454032898 26 23 16
-0.2871325338880221 -0.0018890298282106717 0.725387454032898 26 23 16
-0.2795764145751794 -0.0018890298282106717 0.725387454032898 26 23 16
-0.27202029526233673 -0.0018890298282106717 0.725387454032898 26 23 16
-0.26446417594949406 -0.0018890298282106717 0.725387454032898 26 23 16
-0.25690805663665134 -0.0018890298282106717 0.725387454032898 26 23 16
-0.2493659108877182 -0.0018891356885433197 0.7254281044006348 26 23 16
-0.24233466386795044 -0.0018932395614683628 0.7270039916038513 26 21 15
-0.22720073722302914 -0.0018322640098631382 0.7035893797874451 21 16 12
-0.16518514603376389 -0.0013765428836146991 0.5285924673080444 112 98 160
-0.20167237458129725 -0.0017385549532870452 0.6676051020622253 27 21 25
-0.21190884709358215 -0.0018920432776212692 0.7265446186065674 26 23 16
-0.20402378775179386 -0.0018891091458499432 0.7254179120063782 26 23 16
-0.19662798941135406 -0.001890653744339943 0.7260110378265381 27 22 16
-0.18747144689162573 -0.0018747144689162572 0.7198903560638428 27 22 16
-0.17287497222423553 -0.00180078096066912 0.6914998888969421 32 20 24
-0.16197269906600317 -0.001760572815934817 0.6760599613189697 38 15 21
-0.12845304484168688 -0.0014596936913828056 0.5605223774909973 171 58 146
-0.15464106388390064 -0.0018409650462369125 0.7069305777549744 24 24 12
-0.1513689880569776 -0.00189211235071222 0.7265711426734924 26 23 16
-0.14356916894515356 -0.001889068012436231 0.7254021167755127 26 23 16
-0.13601014763116837 -0.0018890298282106717 0.725387454032898 26 23 16
-0.12845402831832567 -0.0018890298282106717 0.725387454032898 26 23 16
-0.12089790900548299 -0.0018890298282106717 0.725387454032898 26 23 16
-0.1133417896926403 -0.0018890298282106717 0.725387454032898 26 23 16
-0.10578567037979762 -0.0018890298282106717 0.725387454032898 26 23 16
-0.09823026942710082 -0.001889043642828862 0.725392758846283 26 23 16
-0.09026270359754562 -0.0018804729916155338 0.722101628780365 35 25 16
-0.07977121757964294 -0.0018129822177191575 0.6961851716041565 31 29 17
-0.07513739789525668 -0.001878434947381417 0.7213190197944641 26 23 14
-0.06800411827862263 -0.0018890032855172951 0.7253772616386414 26 23 16
-0.06044895450274149 -0.0018890298282106717 0.725387454032898 26 23 16
-0.05289283518989881 -0.0018890298282106717 0.725387454032898 26 23 16
-0.04533671587705612 -0.0018890298282106717 0.725387454032898 26 23 16
-0.03778059656421343 -0.0018890298282106717 0.725387454032898 26 23 16
-0.030224477251370747 -0.0018890298282106717 0.725387454032898 26 23 18
-0.022635964676737785 -0.0018863303897281487 0.7243508696556091 26 23 16
-0.0143160546819369 -0.0017895068352421124 0.6871706247329712 22 19 38
-0.006294604390859604 -0.001573651097714901 0.604282021522522 85 73 157
0.0 -0.0017503796455760796 0.6721457839012146 23 15 39
0.007534128924210866 -0.0018835322310527165 0.7232763767242432 26 22 10
0.015142552554607391 -0.001892819069325924 0.7268425226211548 26 23 16
0.02266903966665268 -0.0018890866388877232 0.7254092693328857 26 23 16
0.030224477251370747 -0.0018890298282106717 0.725387454032898 26 23 16
0.03778059656421343 -0.0018890298282106717 0.725387454032898 26 23 16
0.04533671587705612 -0.0018890298282106717 0.725387454032898 26 23 16
0.052896746744712196 -0.001889169526596864 0.7254410982131958 26 23 16
0.060600295662879944 -0.0018937592394649982 0.7272035479545593 25 21 12
0.06807336956262589 -0.0018909269322951634 0.7261159420013428 28 21 13
0.07187920932968457 -0.0017969802332421143 0.6900404095649719 29 20 15
0.07805303608377774 -0.001773932638267676 0.6811901330947876 34 25 20
0.08698650449514389 -0.0018122188436488311 0.6958920359611511 27 22 16
0.09808721082905929 -0.0018862925159434478 0.7243363261222839 26 23 16
0.10410378873348236 -0.0018589962273836136 0.7138545513153076 26 23 18
0.11252587661147118 -0.001875431276857853 0.7201656103134155 27 22 18
0.12115315596262614 -0.0018930180619160335 0.7269189357757568 26 23 16
0.1285573299974203 -0.0018905489705502987 0.7259708046913147 27 22 18
